ply
format ascii 1.0
element vertex 842
property float x
property float y
property float z
property float nx
property float ny
property float nz
end_header
0.184851 -0.137723 0.20401 -0.258598 0.890245 0.374954
0.174476 -0.135712 0.218307 0.26425 -0.901767 -0.342035
0.911125 -0.291386 -0.337943 0.630916 -0.0198384 0.775598
0.914869 -0.308888 -0.333606 0.658369 -0.174366 0.732221
0.90408 -0.311556 -0.341444 0.600588 -0.184221 0.778047
0.201411 -0.130423 0.209248 -0.294691 0.87304 0.388533
0.190306 -0.12881 0.224425 0.321213 -0.873883 -0.364899
0.217853 -0.122696 0.214345 0.325457 -0.842609 -0.429054
0.207331 -0.120363 0.228516 -0.348386 0.849539 0.396119
0.235712 -0.113953 0.217688 -0.349003 0.799693 0.488556
0.225063 -0.11124 0.231679 0.376701 -0.818456 -0.43385
0.253282 -0.104319 0.220641 -0.36258 0.760491 0.538693
0.244157 -0.100557 0.232935 -0.395939 0.772226 0.49689
0.270919 -0.0948734 0.223688 0.368335 -0.756135 -0.540915
0.262107 -0.0899712 0.234765 -0.373746 0.757355 0.535469
0.289769 -0.0837737 0.2247 -0.350778 0.753452 0.556115
0.280582 -0.0810846 0.236577 0.355361 -0.77339 -0.524963
0.97022 -0.0381645 -0.283552 -0.92713 0.362285 -0.0958132
0.964634 -0.0521258 -0.273551 -0.907629 0.415286 -0.0612148
0.961687 -0.0577607 -0.286138 -0.90205 0.42446 -0.0783572
0.0832361 0.121469 -0.487507 -0.130789 -0.344687 0.929562
0.0921567 0.113193 -0.484232 0.182933 0.28141 -0.941989
0.0786528 0.114497 -0.482662 0.193591 0.407253 -0.892562
0.710236 -0.690087 -0.0206231 0.00190779 0.965716 0.259595
0.724651 -0.686861 -0.0109337 -0.0319558 0.960226 0.27739
0.700763 -0.686309 -0.00853516 0.023098 0.958292 0.284856
0.330078 -1.00313 -0.303282 0.22346 0.585694 0.77912
0.32446 -0.992601 -0.298665 0.268691 0.559339 0.784185
0.612661 -0.690747 -0.0379324 -0.121987 -0.875423 -0.467711
0.604401 -0.684504 -0.0281806 -0.183412 -0.870811 -0.456122
0.590566 -0.687076 -0.0388652 0.20343 0.83346 0.513772
-0.10046 -0.155903 0.217882 -0.0830322 -0.975268 -0.204836
-0.110203 -0.152405 0.231088 0.0857152 0.97005 0.227278
-0.123573 -0.153195 0.218155 -0.126416 -0.973429 -0.190931
0.832352 0.214459 -0.51912 0.791577 0.208405 0.574432
0.826741 0.209999 -0.529948 0.731319 0.23449 0.640459
0.819942 0.228963 -0.532676 0.706527 0.224048 0.671284
0.884561 0.0457173 -0.488455 0.761297 0.057455 0.645852
0.877372 0.0417487 -0.498317 0.766944 -0.00304234 0.641707
0.872493 0.0597567 -0.502186 0.783155 0.150268 0.603397
-0.50792 0.262028 -0.105347 0.826592 0.506463 -0.24544
-0.514631 0.270376 -0.0980966 0.81546 0.511325 -0.271241
-0.510264 0.273495 -0.119646 0.835839 0.487998 -0.25146
0.878317 0.800693 -0.214527 0.8454 -0.358488 -0.39596
0.873027 0.80618 -0.20368 0.796288 -0.265919 -0.543335
0.867555 0.785504 -0.209879 0.733044 -0.502556 -0.458349
0.889687 -0.0302463 -0.444754 0.772164 -0.218227 0.596775
0.897141 -0.0263884 -0.435174 0.749059 -0.261504 0.608709
0.89103 -0.0470668 -0.43903 0.757496 -0.206136 0.619441
0.802971 -0.659624 0.056701 0.144067 -0.906198 -0.397556
0.813098 -0.662657 0.0435776 0.185963 -0.914578 -0.359117
0.818546 -0.653918 0.064137 0.166777 -0.906986 -0.386733
0.516376 -0.533516 0.171843 0.640805 0.192801 0.743099
0.529404 -0.531965 0.183705 0.652356 0.139296 0.745002
0.526386 -0.517209 0.18349 0.686574 -0.014647 0.726912
-0.639858 0.830603 0.378085 0.790468 0.124255 0.599767
-0.646183 0.826068 0.367676 0.829716 0.101022 0.548968
-0.638725 0.814425 0.373323 -0.737443 -0.285313 -0.612188
0.22623 -1.15887 -0.440084 0.050869 0.458071 0.887459
0.220596 -1.14808 -0.435732 0.117926 0.443611 0.888427
0.204438 -1.15516 -0.441372 0.116074 0.378014 0.918495
0.90048 -0.29401 -0.345905 0.577343 -0.0257776 0.816095
0.696919 -0.692208 -0.0322912 0.00226623 0.96427 0.26491
0.686904 -0.688526 -0.0193149 0.0299049 0.955127 0.294682
0.307434 -0.0741804 0.227733 0.360069 -0.739241 -0.569099
0.297577 -0.0714384 0.241066 -0.360483 0.776345 0.51705
0.879772 0.18952 -0.476587 0.615018 0.414402 0.670838
0.892375 0.16781 -0.47696 0.686763 0.278549 0.671392
0.88403 0.164404 -0.48621 -0.677901 -0.243463 -0.693669
0.32687 -0.0622472 0.22789 -0.26048 0.715873 0.647824
0.315776 -0.0608829 0.242995 0.39667 -0.738843 -0.544761
0.343495 -0.054691 0.233109 0.175564 -0.7116 -0.680296
0.335256 -0.0488536 0.243063 -0.29257 0.733192 0.613867
0.361452 -0.0460118 0.23706 0.180531 -0.620767 -0.762926
0.353172 -0.0397563 0.246503 0.274234 -0.678275 -0.681718
0.856833 0.209223 -0.484657 0.728739 0.344553 0.591797
0.863478 0.213027 -0.474298 0.701009 0.317121 0.638766
0.872508 0.185504 -0.486442 -0.644059 -0.390948 -0.657531
0.261582 -0.765142 0.180021 0.485287 -0.503965 -0.714504
0.270749 -0.769593 0.168266 -0.501857 0.61913 0.604001
0.281722 -0.750893 0.177167 0.481748 -0.403973 -0.777641
0.843471 -0.52465 -0.227718 -0.57905 0.763686 -0.285455
0.834005 -0.527842 -0.236273 0.556698 -0.774532 0.300313
0.845874 -0.515548 -0.249818 -0.560945 0.748941 -0.352745
-0.0146164 -0.169697 0.159126 0.009309 0.989033 0.1474
0.936775 0.0338776 -0.421605 0.824818 -0.083875 0.559143
0.930268 0.0294971 -0.431779 0.821554 -0.120659 0.557216
0.92759 0.0465514 -0.436709 0.853343 0.0356952 0.520126
0.379456 -0.0367133 0.240371 -0.205184 0.593306 0.778388
0.3709 -0.0301811 0.2496 0.312166 -0.627128 -0.713626
0.251053 -0.0693088 0.275148 0.448052 -0.757602 -0.474646
0.269469 -0.0594335 0.277299 -0.348728 0.784244 0.513176
0.259456 -0.0560773 0.290341 0.410809 -0.776352 -0.47803
0.474445 -0.603772 -0.261415 0.202815 -0.74287 -0.637973
0.450208 -0.61356 -0.265439 -0.258032 0.780209 0.569818
0.445925 -0.607247 -0.255148 0.331412 -0.781541 -0.528545
0.390755 -0.0186149 0.25059 -0.279496 0.540026 0.793885
0.425864 -0.715805 -0.381848 -0.433794 -0.480714 -0.762061
0.41496 -0.70807 -0.379782 -0.270572 -0.563505 -0.780547
0.435194 -0.713479 -0.372737 -0.504539 -0.36908 -0.780526
-0.105879 -0.657042 0.122156 0.334351 -0.462281 -0.821283
-0.112816 -0.649505 0.130492 0.332111 -0.513119 -0.791461
-0.0952961 -0.637586 0.130544 -0.31912 0.579248 0.75009
0.529564 -0.570613 0.162845 -0.434651 -0.600936 -0.670787
0.536153 -0.581256 0.15911 -0.396821 -0.63407 -0.663694
0.543828 -0.568312 0.174719 -0.427356 -0.621279 -0.656795
0.807714 -0.203476 -0.381813 0.60201 -0.457845 0.654188
0.795394 -0.205636 -0.388611 0.528891 -0.506499 0.680979
0.801422 -0.191524 -0.398611 0.521953 -0.620584 0.585184
0.276336 -0.778261 -0.444704 -0.61793 0.757507 0.210583
0.275266 -0.78248 -0.45839 -0.598649 0.769028 0.224088
0.260941 -0.791358 -0.443792 0.713717 -0.689974 -0.120597
0.863482 0.790982 -0.198912 0.700193 -0.432523 -0.568026
0.84594 0.776193 -0.195837 0.516653 -0.615408 -0.595268
0.851367 0.770598 -0.206436 0.544922 -0.669162 -0.505254
0.583894 -0.697921 -0.0571105 0.171095 0.773583 0.61016
0.576733 -0.689733 -0.0495494 0.239549 0.789 0.56577
0.562849 -0.692695 -0.0599532 0.297823 0.703856 0.644893
0.914663 -0.0196801 -0.417154 0.702785 -0.371369 0.606777
0.923198 -0.0162205 -0.408064 0.758541 -0.379836 0.529472
0.915094 -0.0361052 -0.410861 0.754609 -0.186911 0.628991
0.966228 -0.0434364 -0.294873 -0.922101 0.361943 -0.136849
0.595698 -0.280551 0.198816 0.386944 0.117651 0.914567
0.611039 -0.267755 0.205894 0.306218 0.064059 0.949804
0.598254 -0.268873 0.200999 -0.39535 -0.0970502 -0.913389
0.146361 -0.10453 0.310839 0.27681 -0.855902 -0.436816
0.162712 -0.0967499 0.315881 -0.326467 0.841841 0.429794
0.152905 -0.0938221 0.329134 -0.307354 0.844086 0.439377
0.941695 -0.504254 -0.12368 -0.83605 0.222162 -0.501662
0.934349 -0.5082 -0.133369 0.819431 -0.230159 0.524938
0.935665 -0.49219 -0.140867 0.823676 -0.316186 0.470728
0.942814 0.186242 -0.387819 -0.940781 -0.180599 -0.286906
0.945849 0.169036 -0.38285 -0.957464 -0.0589299 -0.282473
0.939579 0.180645 -0.399858 -0.920696 -0.143695 -0.362864
0.958192 -0.0657217 -0.263427 -0.882292 0.470065 -0.0244944
0.95466 -0.0711761 -0.275394 -0.873003 0.486794 -0.0299462
0.041391 -0.100825 0.366809 0.0827571 -0.878344 -0.470811
0.0507587 -0.105092 0.354782 0.112311 -0.891653 -0.438568
0.0567382 -0.0955496 0.37417 -0.107568 0.876693 0.46887
0.607199 0.650431 -0.331944 0.573727 -0.39746 0.716144
0.606101 0.634041 -0.324618 -0.60674 0.314867 -0.729881
0.596184 0.631334 -0.332908 0.620044 -0.263642 0.738944
0.577189 -0.513509 0.233747 0.633844 0.0949843 0.767607
0.58112 -0.527183 0.232481 0.542131 0.374936 0.752009
0.590646 -0.511756 0.245079 0.582591 0.0814132 0.808677
0.594939 -0.524581 0.243014 0.472736 0.414006 0.777894
0.608719 -0.521898 0.253593 -0.391481 -0.442544 -0.806782
0.604678 -0.508236 0.255028 0.527744 0.0618083 0.847151
0.650933 -0.532368 0.259045 -0.166854 -0.650376 -0.741061
0.666372 -0.526873 0.266431 0.0881765 0.655362 0.75015
0.659243 -0.518516 0.274452 0.186258 0.496464 0.847839
0.794889 -0.595977 -0.179919 -0.373593 0.521661 -0.767006
0.808708 -0.594683 -0.174293 0.321532 -0.397059 0.859629
0.793787 -0.612213 -0.172718 0.28315 -0.334201 0.898964
0.636075 -0.536914 0.250591 0.203306 0.64881 0.733288
0.644036 -0.523698 0.26613 0.194878 0.608644 0.76914
0.86518 0.181441 -0.496163 -0.679341 -0.360529 -0.639151
0.875399 0.160912 -0.495234 0.698962 0.199374 0.686806
0.812359 -0.612355 -0.169214 -0.252635 0.209481 -0.944613
0.817142 -0.630208 -0.1643 0.163729 -0.326273 0.930988
0.796222 -0.629469 -0.167043 -0.232287 0.33175 -0.914322
-0.210086 1.01843 -0.185093 0.3917 0.905306 -0.164295
0.853645 -0.211411 -0.344941 0.552478 0.296039 0.779185
-0.210263 -0.948031 0.189786 0.622063 0.272669 0.733954
-0.206143 -0.963792 0.18983 0.551425 0.584384 0.595337
-0.196475 -0.944763 0.199279 0.584297 0.118418 0.802854
0.877199 0.293068 -0.433828 -0.856192 -0.272525 -0.438936
0.873426 0.286375 -0.44432 0.835591 0.24096 0.493686
0.866408 0.299627 -0.447466 0.755295 0.404546 0.515628
0.565802 0.560642 -0.398901 -0.980456 -0.187871 -0.0583959
0.567474 0.552612 -0.413584 0.948947 0.307172 0.0717276
0.566167 0.558896 -0.413565 -0.984393 -0.175401 -0.0143028
0.767093 0.717403 -0.307824 0.139941 -0.989555 0.0345935
0.737954 0.714025 -0.285326 0.161493 -0.986769 0.0143863
0.752343 0.716924 -0.313594 0.111868 -0.99083 0.075774
0.950381 -0.0787552 -0.252605 0.840611 -0.541522 -0.0112835
0.946892 -0.0841703 -0.264602 0.838883 -0.544245 -0.00845485
0.16226 -1.04175 -0.421084 -0.563759 -0.120636 -0.817082
0.165703 -1.05712 -0.420223 0.524496 0.138442 0.840082
0.175895 -1.03988 -0.40968 -0.549755 -0.194114 -0.812459
0.368322 -0.677199 0.152748 -0.405184 0.189099 0.894465
0.359413 -0.698601 0.150527 0.477119 -0.304781 -0.824298
0.376717 -0.689142 0.143573 -0.494592 0.370295 0.786295
0.106838 -1.13693 -0.462919 0.41547 0.0573125 0.907799
0.103812 -1.12163 -0.464139 -0.466129 -0.0212361 -0.884462
0.0890388 -1.12621 -0.472505 0.469277 0.00787445 0.883016
0.681805 -0.67837 0.0155777 0.0774335 0.935959 0.343488
0.695668 -0.675659 0.0262012 0.0656747 0.92816 0.366341
0.67291 -0.673057 0.0264276 0.10628 0.914308 0.390828
0.375062 -1.00809 -0.304789 0.225816 -0.734286 -0.64018
0.392384 -0.998989 -0.30202 -0.309278 0.753769 0.57981
0.383672 -0.994077 -0.290721 0.203598 -0.710092 -0.674031
0.290998 -1.1291 -0.420505 0.214102 -0.671031 -0.709843
0.308072 -1.12007 -0.417745 -0.361537 0.675807 0.642321
0.30057 -1.11321 -0.40872 -0.254888 0.653151 0.713039
0.284877 -1.12149 -0.41276 0.0958551 -0.656644 -0.748084
0.890254 -0.228868 -0.33106 -0.476385 -0.44675 -0.757279
0.906122 -0.250701 -0.333914 -0.511451 -0.33917 -0.789545
0.894485 -0.252678 -0.341571 -0.483433 -0.324 -0.813214
0.345386 -1.07709 -0.393929 0.471342 -0.740614 -0.478881
0.363176 -1.06541 -0.393779 -0.55859 0.744827 0.36498
0.353444 -1.06383 -0.379 -0.3897 0.775074 0.497387
0.435353 -0.783966 -0.158436 -0.390624 -0.264921 -0.881606
0.450115 -0.779419 -0.150147 0.370954 0.270802 0.88829
0.430858 -0.771208 -0.156331 0.427105 0.252757 0.868156
0.464839 -0.774949 -0.141665 0.344091 0.283635 0.895071
0.460813 -0.761285 -0.140526 0.35174 0.246394 0.903089
0.445507 -0.766776 -0.147794 0.377164 0.26292 0.888043
0.419636 -0.974184 -0.287351 -0.472742 0.765483 0.436522
0.437472 -0.9623 -0.287348 -0.603495 0.707057 0.368597
0.427516 -0.960657 -0.272434 -0.444622 0.726218 0.524327
0.408987 -0.971527 -0.273087 -0.246807 0.723881 0.644269
0.360143 -0.992561 -0.288662 -0.0710757 -0.624891 -0.77747
0.367281 -1.00061 -0.296264 -0.054352 0.701515 0.710579
0.375886 -0.986941 -0.281866 -0.036479 0.64875 0.760127
0.424903 -0.688821 0.106229 -0.570245 0.606627 0.553917
0.432422 -0.693415 0.0899853 -0.582333 0.729652 0.358464
0.447268 -0.672597 0.10107 -0.572802 0.57334 0.585814
0.0384776 -0.143579 0.260876 -0.0486442 0.950061 0.308249
0.0526666 -0.139998 0.270283 0.0732 -0.939795 -0.333806
0.0433662 -0.135884 0.282358 0.0656564 -0.930295 -0.360888
0.40064 -0.985819 -0.287013 -0.289296 0.733812 0.614677
0.391964 -0.979123 -0.277395 0.179579 -0.675876 -0.714803
0.0291983 -0.139649 0.273046 -0.051111 0.945698 0.321004
0.240237 -0.0683404 0.290515 -0.495828 0.728728 0.472345
0.218117 -0.0463892 0.346148 0.51356 -0.708615 -0.483859
0.228536 -0.0485893 0.33188 0.495602 -0.716209 -0.491349
0.237143 -0.0339371 0.345769 -0.4768 0.72919 0.490861
0.24806 -0.0368196 0.331888 0.456198 -0.735738 -0.500574
0.287825 -0.0493532 0.279544 0.379262 -0.759027 -0.529187
0.277756 -0.0459436 0.292537 -0.38707 0.76186 0.51937
0.445902 -0.947808 -0.273347 0.552046 -0.721715 -0.41758
0.141075 -0.184273 0.0305857 0.103626 0.972446 0.208829
0.150371 -0.188202 0.0184191 -0.148054 -0.971112 -0.187143
0.164056 -0.186661 0.0293372 -0.14025 -0.960655 -0.239734
0.233995 -0.827082 -0.527787 0.413144 -0.788031 -0.45642
0.238353 -0.833556 -0.537984 -0.31627 0.725196 0.611608
0.214154 -0.83817 -0.529305 0.542522 -0.801677 -0.250965
0.62468 -0.708867 -0.0805877 0.171657 -0.896889 -0.407583
0.640305 -0.703737 -0.0730352 0.0618257 -0.949014 -0.309111
0.629846 -0.701491 -0.0588904 -0.0187759 0.929937 0.367239
0.937987 0.017158 -0.41566 0.80593 -0.26884 0.527449
0.65421 -0.701337 -0.0623133 -0.0303875 0.955621 0.293027
0.668631 -0.698096 -0.0526509 -0.0208466 0.95588 0.293016
0.659181 -0.694371 -0.0404899 0.0119926 0.943217 0.331962
0.935383 -0.525039 -0.127312 0.824332 -0.0409592 0.564623
0.939248 -0.542798 -0.122957 0.808358 -0.0124038 0.588561
0.9319 -0.546725 -0.132636 0.724929 -0.045749 0.687303
0.926206 -0.528299 -0.136903 0.754074 -0.074153 0.65259
0.862757 -0.679298 -0.0822328 -0.258277 0.965968 0.0141304
0.864129 -0.679011 -0.0961567 0.306964 -0.927497 0.213359
0.875967 -0.676404 -0.0891241 0.369584 -0.91493 0.162204
0.0541211 -0.879812 0.211666 0.423061 -0.848929 -0.316764
0.066041 -0.878407 0.193324 -0.461612 0.871194 0.167138
0.0723655 -0.869632 0.212862 0.469744 -0.812847 -0.344414
0.940784 -0.0912901 -0.24035 0.839298 -0.543662 -0.00323487
0.937572 -0.0968746 -0.252329 0.844338 -0.535631 -0.0138995
0.0898438 -1.2262 -0.50143 0.325814 0.898992 0.292674
0.103785 -1.2236 -0.490819 -0.259997 -0.757394 -0.598963
0.0832662 -1.2175 -0.494727 -0.313788 -0.595034 -0.739913
0.947499 0.152271 -0.377138 -0.916527 -0.0958592 -0.388315
0.942049 0.163403 -0.394665 -0.936718 0.00448721 -0.350055
-0.578995 0.851224 0.433213 0.475164 0.11097 0.872872
-0.565844 0.861764 0.440455 0.383646 0.0612389 0.921448
-0.577422 0.878683 0.434213 -0.485755 0.0716429 -0.871154
-0.000713813 -0.0375575 -0.341818 0.404768 0.520176 -0.75205
0.000814805 -0.0523838 -0.330298 -0.422134 -0.653681 0.628095
-0.0107568 -0.0494179 -0.32541 0.46834 0.656765 -0.591031
-0.011945 -0.0183561 -0.345835 0.469427 0.435771 -0.767947
-0.000205025 -0.0212371 -0.350513 -0.406961 -0.446686 0.796777
-0.0123104 -0.0345337 -0.336902 0.471828 0.52073 -0.711491
0.890786 -0.158928 -0.310087 0.795771 -0.468392 0.383871
0.882873 -0.162619 -0.319569 0.799876 -0.470191 0.372986
0.879189 -0.5872 -0.144661 0.362118 -0.282437 0.888313
0.880855 -0.604216 -0.139544 -0.492712 0.17189 -0.853047
0.871058 -0.607245 -0.147622 -0.498895 0.0494222 -0.865252
0.941168 -0.379371 -0.274108 0.703183 -0.419142 0.57433
0.938606 -0.394812 -0.265971 0.694282 -0.436088 0.572539
0.931645 -0.382514 -0.282659 0.671277 -0.430898 0.603087
0.057098 0.0266659 -0.413715 0.476758 0.558711 -0.678634
0.0685525 0.0235304 -0.418833 -0.483484 -0.549974 0.681008
0.0584351 0.0116291 -0.402555 -0.507465 -0.558803 0.65591
0.067771 0.0387054 -0.429366 -0.480828 -0.51962 0.706257
0.872158 -0.146075 -0.368419 0.617212 -0.677401 0.400221
0.870156 -0.13593 -0.387751 0.612164 -0.642295 0.461208
0.805649 -0.674593 -0.138178 -0.30321 0.762108 -0.572062
0.790925 -0.676264 -0.143877 0.345354 -0.71921 0.602883
0.529336 -0.592274 0.141411 0.255841 0.679776 0.68735
0.535961 -0.601153 0.134894 0.218198 0.727872 0.650071
0.543414 -0.589125 0.151395 -0.332454 -0.708781 -0.622177
0.142214 -0.849821 0.165805 0.387338 -0.910336 -0.145803
0.155472 -0.847244 0.145669 0.340448 -0.939247 -0.0437097
0.158794 -0.841733 0.17015 -0.450939 0.827141 0.335397
0.18042 -0.0877937 0.319078 0.383472 -0.810063 -0.443562
0.169871 -0.085466 0.333205 0.365794 -0.809969 -0.458416
0.136375 -0.101172 0.323978 0.27222 -0.861705 -0.428206
0.0885423 -0.0832435 0.386753 0.194328 -0.832574 -0.518708
0.0972395 -0.0874512 0.375407 0.236131 -0.84358 -0.482302
0.104852 -0.0751679 0.391602 0.266586 -0.805509 -0.529232
0.0661277 -0.0998557 0.362124 0.12583 -0.889765 -0.438731
0.0814635 -0.0944446 0.369437 -0.177653 0.867823 0.464029
0.0726015 -0.0895406 0.380482 -0.145072 0.856156 0.495934
0.818521 0.206617 -0.539399 0.694199 0.240295 0.678488
0.829261 0.185008 -0.538471 0.685295 0.243927 0.686201
0.842343 0.193699 -0.517962 0.754527 0.352058 0.553845
0.837513 0.188585 -0.529056 0.718149 0.306435 0.624787
0.436048 -0.946162 -0.25871 0.405068 -0.70861 -0.577748
0.455123 -0.932842 -0.260538 0.539857 -0.70312 -0.462791
0.444227 -0.931329 -0.245237 -0.401809 0.687326 0.605089
0.932821 -0.104422 -0.228823 -0.903114 0.424556 -0.0643259
0.930143 -0.110238 -0.24148 -0.898029 0.433792 -0.0732719
0.228351 -1.21519 -0.486592 0.273548 -0.906941 -0.32036
0.244894 -1.20658 -0.482974 -0.333925 0.843661 0.420393
0.23579 -1.20416 -0.468664 -0.278872 0.714438 0.641724
0.393347 -0.956681 -0.256105 -0.0315333 -0.608307 -0.793075
0.400482 -0.964803 -0.26359 0.128743 -0.670943 -0.730247
0.409529 -0.949546 -0.250858 0.120277 -0.635541 -0.762641
0.21884 -1.21264 -0.471941 0.227981 -0.749068 -0.62203
0.36623 -0.819116 -0.202182 0.484898 0.153652 0.860968
0.380648 -0.815469 -0.193171 -0.449025 -0.151589 -0.880567
0.362366 -0.805418 -0.201427 -0.523934 -0.0984893 -0.846045
0.410165 -0.806425 -0.176735 -0.43121 -0.196379 -0.880621
0.406153 -0.79212 -0.175771 -0.45017 -0.203 -0.869562
0.391628 -0.796511 -0.184414 -0.45787 -0.178848 -0.870843
0.916405 -0.468516 -0.219893 0.628029 -0.697927 0.344205
0.905915 -0.481361 -0.207144 0.628606 -0.7243 0.283274
0.906242 -0.471795 -0.228021 0.628629 -0.685456 0.36739
0.835246 -0.587514 0.174258 0.213408 -0.778657 -0.590043
0.844481 -0.593282 0.163919 0.245372 -0.778216 -0.578076
0.852982 -0.579769 0.179243 -0.257249 0.76632 0.588707
0.682493 -0.695287 -0.0420333 -0.0138749 0.95857 0.284521
0.673066 -0.691504 -0.0298963 0.0206763 0.950677 0.309492
0.945373 -0.462724 -0.159884 0.704102 -0.673272 0.225711
0.937396 -0.476458 -0.148551 0.750438 -0.528571 0.396805
0.930157 -0.480416 -0.158398 0.754333 -0.545508 0.365242
0.714642 -0.683555 0.00209189 -0.00439406 0.95537 0.295381
0.180122 -1.05275 -0.411191 0.49748 0.217363 0.839802
0.194359 -1.04984 -0.401193 0.47749 0.27897 0.833174
0.189988 -1.03638 -0.399801 0.521301 0.24224 0.81827
0.0309871 -0.89154 0.177168 0.315144 -0.936974 0.15088
0.0371287 -0.88871 0.208407 0.422902 -0.89644 -0.132475
0.0201042 -0.89755 0.2053 -0.41551 0.909585 0.00253505
0.246482 -0.8091 -0.454869 0.718795 -0.691861 -0.0682844
0.243949 -0.812761 -0.469428 0.701527 -0.70877 -0.074193
0.233176 -0.822534 -0.452359 0.757795 -0.652476 -0.00460338
0.290489 -0.756385 0.166552 -0.495814 0.53227 0.68619
0.311319 -0.741268 0.162786 0.521134 -0.528508 -0.670148
0.302006 -0.735406 0.172642 -0.466074 0.320951 0.824479
0.369303 0.707696 -0.739245 0.443258 0.545727 -0.711129
0.343466 0.72409 -0.756456 0.529225 -0.180024 0.829164
0.373792 0.725334 -0.752325 0.0562222 0.448372 0.892077
0.204949 -1.195 -0.459132 0.0257613 0.440169 0.897545
0.199324 -1.18432 -0.454675 0.0650923 0.405501 0.911774
0.182567 -1.19222 -0.459168 0.0548613 0.407715 0.91146
-0.122827 -0.92152 0.226888 -0.380442 0.455473 -0.804865
-0.135488 -0.939911 0.228458 -0.326454 0.140232 -0.934753
-0.123879 -0.940048 0.233002 -0.254263 0.0509617 -0.965792
0.0884019 0.773546 -0.548413 0.0178269 0.89185 0.451979
0.0983277 0.769464 -0.556802 0.02755 0.883151 0.468279
0.0777869 0.764246 -0.569415 -0.0531833 -0.893568 -0.445766
0.437874 -0.738576 -0.146468 -0.473533 -0.0856038 -0.876606
0.434856 -0.722985 -0.14748 -0.520241 -0.0291591 -0.853522
0.42037 -0.726624 -0.156695 0.558046 -0.00576482 0.82979
0.0555776 -0.17276 0.119945 0.0256237 -0.993738 -0.108754
0.0408472 -0.173112 0.123847 -0.0324977 0.993911 0.105284
0.857898 0.0986878 -0.507397 0.784736 -0.00351314 0.61982
0.86592 0.102157 -0.497887 0.790369 -0.107075 0.603202
0.864388 0.0797352 -0.504514 0.77987 0.200779 0.592866
0.0912563 -0.171498 0.130671 -0.0416277 0.982069 0.183867
0.0780562 -0.173113 0.118978 -0.00356429 0.9912 0.132323
0.106171 -0.167783 0.139243 -0.0936837 0.967226 0.236003
0.488218 -0.695017 -0.10895 -0.51546 -0.277434 -0.81076
0.501918 -0.692909 -0.0977904 0.50879 0.355451 0.784084
0.497366 -0.680245 -0.0953531 -0.557206 -0.413618 -0.720029
0.0673795 -0.135482 0.278586 0.103708 -0.927656 -0.358747
0.0580721 -0.131549 0.290758 0.0920397 -0.920883 -0.378818
0.618218 0.652603 -0.324186 -0.607182 0.423592 -0.672235
0.119855 -0.164638 0.149699 0.109929 -0.961326 -0.252523
0.898375 -0.663015 -0.0947362 -0.566414 0.760358 -0.317855
0.888953 -0.670769 -0.09033 -0.390456 0.907368 -0.155653
0.889801 -0.666288 -0.10374 -0.475359 0.773434 -0.419325
-0.0187702 -0.139921 0.280579 -0.0479954 0.943479 0.32794
-0.00410024 -0.135847 0.288996 -0.0621129 0.937641 0.342011
-0.0139512 -0.132055 0.302025 -0.0532168 0.935606 0.349013
0.197874 -0.078174 0.32192 0.45603 -0.759078 -0.464583
0.18881 -0.0747362 0.334354 -0.435547 0.763877 0.476226
0.521444 -0.605259 0.125826 -0.123333 -0.721767 -0.681059
0.528804 -0.612186 0.1175 -0.0526919 -0.828489 -0.557521
0.345063 -0.998023 -0.295771 0.153416 0.608658 0.778459
0.338572 -0.988865 -0.289485 0.228594 0.546534 0.805633
0.353561 -0.983646 -0.282091 -0.162409 -0.564244 -0.809476
0.881675 0.142051 -0.492132 0.764178 0.00914256 0.64494
0.890105 0.145501 -0.482895 0.713191 -0.0139727 0.700831
0.883703 0.124853 -0.486551 0.752744 -0.212664 0.623017
0.369143 -0.977493 -0.275733 0.0718042 0.589667 0.804448
0.206061 -0.82112 0.156346 0.469517 -0.802105 -0.369026
0.21305 -0.808005 0.172117 0.499106 -0.704231 -0.504927
0.194719 -0.820009 0.172323 0.481409 -0.729136 -0.486422
0.899171 -0.0108904 -0.442763 0.692263 -0.454043 0.560908
0.889905 -0.0140655 -0.451521 0.69863 -0.417561 0.580998
0.893682 0.000671862 -0.460321 0.677587 -0.478473 0.558516
0.657758 -0.561278 0.227998 -0.104606 -0.731439 -0.673836
0.665011 -0.569286 0.220379 -0.0878043 -0.746517 -0.659547
0.672728 -0.556059 0.236025 0.0427762 0.749283 0.660867
0.919703 0.21926 -0.412985 0.757002 0.449803 0.473946
0.929195 0.21333 -0.40022 0.837456 0.375479 0.397093
0.921816 0.206817 -0.42069 0.792961 0.370127 0.483962
0.368878 -1.03802 -0.348014 0.373361 -0.772411 -0.513793
0.378483 -1.04104 -0.361448 0.46646 -0.790138 -0.397613
0.386711 -1.02805 -0.346332 -0.502652 0.767728 0.39741
0.542385 -0.531081 0.196077 -0.654845 -0.194754 -0.730239
0.539578 -0.515547 0.195221 0.694166 -0.0075519 0.719775
0.292362 -0.177319 0.125628 -0.280597 -0.707338 -0.648797
0.285969 -0.167661 0.131569 0.2609 0.716562 0.646893
0.272141 -0.170664 0.120756 0.294779 0.729501 0.617199
0.0976471 -1.21381 -0.48527 -0.26803 -0.570914 -0.776026
0.412986 -0.728644 -0.161437 0.5838 -0.0359289 0.811102
0.409303 -0.745699 -0.16529 0.560097 0.0320225 0.827808
0.423447 -0.742179 -0.155658 0.532644 0.0440294 0.845193
0.680562 -0.56305 0.227244 0.0215355 0.744987 0.666731
0.327045 -1.10695 -0.419604 -0.512127 0.685176 0.517938
0.316829 -1.10441 -0.405405 0.346685 -0.695065 -0.629836
0.264913 -0.182028 0.103281 0.334944 0.750306 0.569959
0.278806 -0.179547 0.114146 0.324309 0.734715 0.595833
0.258283 -0.173345 0.110016 0.291666 0.768091 0.570058
0.13471 -0.160386 0.158192 -0.105021 0.962522 0.250043
0.14896 -0.156727 0.167656 0.105706 -0.961253 -0.254595
0.163271 -0.153062 0.177141 0.155881 -0.947107 -0.280517
0.416446 -0.686486 -0.164356 0.717062 -0.175164 0.674641
0.418673 -0.705579 -0.158358 0.62508 -0.068863 0.777517
0.429386 -0.69103 -0.150704 0.644456 -0.0770363 0.76075
0.23914 -0.050959 0.317765 -0.465981 0.731573 0.497658
0.257834 -0.0396917 0.318837 -0.423978 0.768288 0.479559
0.254067 -1.01035 -0.34533 0.474006 0.44892 0.757489
0.259467 -1.02132 -0.349433 -0.410274 -0.498964 -0.763355
0.267651 -1.00776 -0.33487 0.432832 0.484044 0.760498
0.273195 -1.01858 -0.339193 -0.388118 -0.529878 -0.754052
0.113703 -0.0802228 0.380628 -0.278443 0.825732 0.490547
0.121983 -0.0671467 0.395892 -0.313716 0.794811 0.519479
0.131338 -0.0712024 0.383768 -0.345924 0.779273 0.522562
-0.142172 -0.146019 0.244885 0.125738 0.963903 0.234693
-0.150937 -0.141731 0.256148 -0.151951 -0.95443 -0.256855
-0.163475 -0.142264 0.243474 -0.2013 -0.955375 -0.216187
0.827419 0.233031 -0.523099 0.766291 0.189069 0.614045
0.515868 -0.770154 -0.123533 -0.093967 -0.484425 -0.869772
0.53255 -0.763218 -0.118082 0.020869 0.513464 0.857857
0.510744 -0.758553 -0.119971 -0.212774 -0.420122 -0.882171
0.332907 -0.978304 -0.284865 0.274579 0.529323 0.80276
0.318381 -0.982655 -0.293239 -0.332161 -0.507763 -0.794887
0.417655 -0.957069 -0.259297 0.232691 -0.693945 -0.681392
0.426384 -0.941605 -0.246753 -0.210063 0.662407 0.71909
-0.115621 -0.123397 0.323111 0.0646782 0.92753 0.368111
-0.124381 -0.118208 0.334081 0.0984917 0.917171 0.386131
-0.137888 -0.12075 0.323698 0.117065 0.919257 0.375849
0.424876 -0.801894 -0.168337 -0.40561 -0.223606 -0.886273
0.420642 -0.78841 -0.166888 -0.424079 -0.232047 -0.875392
0.572366 -0.541656 0.218524 0.497092 0.496767 0.711422
0.578074 -0.551855 0.21344 -0.377543 -0.634542 -0.674401
0.586107 -0.539055 0.229165 -0.422778 -0.547149 -0.722418
0.262258 -1.19761 -0.480083 -0.538454 0.793965 0.282289
0.253886 -1.19471 -0.46736 0.337868 -0.711526 -0.616097
0.32206 -0.706852 0.171189 0.448193 -0.130309 -0.884388
0.331546 -0.7257 0.158301 0.545383 -0.442337 -0.711965
0.332389 -0.710426 0.164861 0.525414 -0.226359 -0.820184
0.921737 -0.0898423 -0.360524 0.764306 -0.489942 0.419276
0.917306 -0.104383 -0.351445 0.770869 -0.51226 0.378618
0.913398 -0.0933956 -0.369753 0.74779 -0.495091 0.442375
0.513847 -0.617698 0.1097 0.0842733 -0.744371 -0.662427
0.928894 -0.119088 -0.220109 -0.962233 0.211832 -0.170983
0.925883 -0.124972 -0.232631 -0.949755 0.237505 -0.203857
0.93009 -0.0608281 -0.378367 0.792608 -0.389245 0.46932
0.926402 -0.0755027 -0.369692 0.762752 -0.492268 0.419382
0.922845 -0.0647387 -0.388145 0.770382 -0.421856 0.478068
0.978193 -0.263066 -0.264591 0.793637 0.111354 0.598114
0.982702 -0.281002 -0.260598 0.798554 0.0324288 0.601049
0.974692 -0.284564 -0.270062 0.769293 0.00696735 0.638858
0.970943 -0.267066 -0.274377 0.778604 0.0578117 0.624847
0.9429 0.147205 -0.388454 -0.901052 -0.00772465 -0.433643
0.406181 -0.700942 -0.374139 -0.159249 -0.66915 -0.725864
0.949644 -0.295186 -0.297671 0.712593 -0.106178 0.693497
0.952974 -0.312615 -0.292944 0.692833 -0.124037 0.71035
0.943383 -0.315685 -0.301441 0.687965 -0.140651 0.711984
0.927113 0.0700365 -0.429238 0.769886 0.199693 0.606134
0.923444 0.0645619 -0.44103 0.841797 0.147897 0.519139
0.915708 0.083649 -0.443226 0.822152 0.282141 0.494432
0.922936 -0.454754 -0.230284 0.691911 -0.576374 0.434801
0.914294 -0.458048 -0.239313 0.647007 -0.59661 0.474803
0.918331 -0.44334 -0.248342 0.688913 -0.515349 0.509721
0.927736 -0.44007 -0.239724 0.716037 -0.513054 0.473357
-0.0313196 -0.159605 0.211693 -0.00775749 0.968986 0.246996
-0.0176921 -0.157038 0.222213 -0.0277925 0.962478 0.269934
-0.0411021 -0.156406 0.224984 -0.00868348 0.962828 0.269976
0.891223 0.112569 -0.470378 0.797085 -0.163071 0.581433
0.894328 0.0952059 -0.465731 0.741731 0.165635 0.649923
0.885697 0.0917457 -0.474718 0.719831 0.126153 0.68259
0.928861 -0.135358 -0.21356 -0.939 -0.0305895 -0.342554
0.925367 -0.140885 -0.225524 -0.954232 -0.052245 -0.29447
-0.00349107 -0.153589 0.231615 -0.0396327 0.960077 0.276912
-0.0138646 -0.150591 0.245772 -0.0301533 0.956167 0.291264
-0.026911 -0.153104 0.234404 -0.0229637 0.960556 0.277138
0.0099212 0.03811 -0.395117 -0.364496 -0.631477 0.684383
0.0223445 0.0355795 -0.398996 -0.36801 -0.61417 0.698114
0.0114855 0.0234751 -0.383517 0.377672 0.573762 -0.726747
0.480139 -0.769478 -0.134502 0.31008 0.307929 0.899461
0.475676 -0.756737 -0.132463 0.352347 0.250789 0.901641
0.394229 -0.677367 -0.345432 -0.249649 0.839909 0.481901
0.421016 -0.668643 -0.339677 -0.0743269 0.802797 0.591602
0.395868 -0.682722 -0.357391 0.182269 -0.811044 -0.555864
0.446438 -0.0659727 0.218311 -0.158576 0.406361 0.899847
0.451935 -0.0765429 0.213248 0.220753 -0.422923 -0.878865
0.452834 -0.0614733 0.21923 0.293279 -0.326131 -0.89868
0.0826674 -0.130339 0.285926 0.136405 -0.919893 -0.367683
0.0727531 -0.126934 0.299027 0.114557 -0.91446 -0.388124
-0.0678714 -0.160892 0.202922 0.0483453 0.97929 0.196608
-0.0781204 -0.15783 0.217146 0.0462779 0.973629 0.223396
-0.0907146 -0.15908 0.204542 -0.073761 -0.978641 -0.191887
0.892087 0.128296 -0.47731 0.767399 -0.218324 0.602855
0.883033 0.109083 -0.479742 0.773642 -0.170181 0.610342
-0.00911803 -0.124383 0.323508 0.0624668 -0.920307 -0.386176
0.00552446 -0.119781 0.331744 0.0749989 -0.914399 -0.397807
-0.00324453 -0.115056 0.342844 0.0614484 -0.903121 -0.424968
-0.0873347 -0.154124 0.229428 0.0433253 0.969352 0.241824
-0.0742618 -0.151994 0.240834 0.0139884 0.960738 0.277104
-0.0970855 -0.150587 0.242624 0.0491372 0.965013 0.257558
0.421432 -0.484438 0.0872683 -0.312072 0.700363 -0.641952
0.42026 -0.498182 0.102591 -0.203066 0.682712 -0.701904
0.43444 -0.483043 0.0933103 0.403861 -0.617085 0.675353
0.17875 -0.147555 0.184561 0.207371 -0.920948 -0.329928
0.194764 -0.141009 0.190861 -0.256385 0.885731 0.386971
0.21133 -0.133553 0.196096 -0.274308 0.865385 0.419361
0.363365 -0.0236434 0.258767 0.362798 -0.645801 -0.671802
0.383041 -0.0116118 0.259143 0.425487 -0.566903 -0.705395
0.59184 -0.589243 0.175481 -0.207644 -0.786247 -0.581979
0.584598 -0.581396 0.183241 0.243948 0.756543 0.606739
0.570812 -0.58414 0.172743 -0.260876 -0.746258 -0.612407
0.250595 -0.848184 -0.554791 0.121539 0.476309 0.870837
0.225572 -0.857206 -0.56025 0.0798235 -0.64939 -0.756254
0.244134 -0.840701 -0.547097 -0.200163 0.670789 0.714127
0.218514 -0.0646173 0.319858 0.51678 -0.701285 -0.491057
0.208149 -0.062656 0.334202 -0.510881 0.709055 0.486048
0.972615 -0.245394 -0.267778 0.779028 0.271408 0.565202
0.450549 -0.679432 -0.348256 0.285846 0.460647 0.840295
0.455901 -0.707767 -0.356678 0.54942 0.303852 0.778339
0.440575 -0.692926 -0.359966 0.321484 0.54704 0.772913
0.376994 -0.800976 -0.192931 -0.476148 -0.13159 -0.869464
0.162294 -1.2275 -0.479721 0.0362696 0.713989 0.699217
0.178653 -1.22016 -0.474317 -0.00203721 0.603383 0.797449
0.171942 -1.21038 -0.468463 0.0165906 0.493472 0.869603
0.155614 -1.21795 -0.473272 0.100888 0.469711 0.877036
-0.0580881 -0.164038 0.189625 0.0303426 0.983008 0.18104
-0.0809823 -0.162227 0.191266 -0.0648896 -0.98263 -0.173863
0.0193274 -0.135934 0.286088 -0.0564034 0.93601 0.347424
0.0340123 -0.131709 0.294464 0.0704477 -0.926067 -0.370725
0.904071 0.00332776 -0.452151 0.667458 -0.481597 0.567948
-0.103797 -0.160248 0.192913 0.104791 0.983141 0.149843
0.385725 0.638857 -0.691707 0.351675 0.679471 -0.643928
0.38894 0.625205 -0.677979 -0.268359 -0.74223 0.614067
0.375693 0.627196 -0.675053 0.317362 0.703561 -0.635833
0.854239 -0.511974 -0.240634 -0.592388 0.74063 -0.317087
-0.0449712 -0.161994 0.201185 0.0109195 0.976932 0.213273
-0.0547251 -0.159112 0.214502 0.00841474 0.970821 0.239658
0.113416 -0.119319 0.300564 0.23361 -0.888446 -0.395083
0.129903 -0.111878 0.305698 -0.258606 0.869545 0.420731
0.119955 -0.10869 0.318845 0.261742 -0.865887 -0.4263
0.483679 -0.682361 -0.106619 0.563373 0.288164 0.77432
0.103502 -0.116065 0.313678 0.210218 -0.882975 -0.419717
0.677898 0.685734 -0.760566 0.487309 0.124371 0.864327
0.673167 0.665996 -0.751638 -0.402068 0.542545 -0.737554
0.640303 0.670876 -0.780458 0.310761 -0.144476 0.939444
0.138973 -0.853075 0.14045 -0.2306 0.962773 -0.14104
0.175584 -0.839424 0.134476 0.372768 -0.924224 0.082792
0.227796 -0.125919 0.201182 0.279863 -0.845107 -0.455489
0.245609 -0.117129 0.20474 0.291816 -0.799952 -0.524328
0.262383 -0.107844 0.209758 0.322411 -0.749403 -0.578313
0.280891 -0.0980952 0.210654 -0.325536 0.71021 0.624202
0.513619 -0.517966 0.170877 0.673484 -0.0229242 0.738846
0.276047 -0.0292646 0.320708 -0.416639 0.758846 0.500565
-0.272811 -0.0475013 0.370552 0.44511 0.726168 0.523982
-0.260189 -0.0464657 0.382857 0.431638 0.7245 0.53739
-0.279582 -0.038833 0.377749 0.457677 0.709176 0.536285
0.046033 0.0297386 -0.408184 0.481495 0.567461 -0.667946
0.0477079 0.015117 -0.396537 -0.490378 -0.576843 0.653285
0.0361813 0.0182116 -0.391518 0.434832 0.591402 -0.679091
0.149386 -0.0608008 0.385585 0.375149 -0.768576 -0.518222
-0.297575 -0.0486283 0.345374 0.484107 0.724508 0.490641
-0.285244 -0.0481369 0.358013 0.464495 0.726192 0.506843
-0.304278 -0.0398269 0.352046 0.490587 0.71172 0.502771
1.06044 -0.223049 -0.123174 0.621331 -0.0343068 0.782797
1.06202 -0.239705 -0.117788 0.670909 -0.19002 0.71678
1.05218 -0.242735 -0.125905 0.687007 -0.145428 0.711949
-0.247535 -0.045518 0.395189 0.403815 0.718945 0.565732
-0.254174 -0.0365193 0.401716 0.422358 0.704269 0.570629
-0.266762 -0.0374882 0.389378 0.445712 0.711455 0.543298
-0.102101 -0.120531 0.333401 0.0371415 0.924767 0.378716
0.933534 0.19958 -0.403008 0.868283 0.28608 0.405269
-0.129193 -0.125956 0.312681 0.0917332 0.928433 0.359996
-0.110849 -0.115566 0.344472 0.05349 0.914793 0.400366
-0.0875578 -0.116645 0.341821 0.000323965 0.919481 0.393135
-0.0967775 -0.1121 0.353827 0.0243329 0.909924 0.414061
0.592266 -0.549012 0.223669 -0.345313 -0.603285 -0.718893
0.505182 -0.61027 0.118152 -0.0551061 0.656176 0.752593
0.862046 -0.58489 0.168409 0.287442 -0.773484 -0.564889
0.880194 -0.57556 0.171868 -0.343575 0.742485 0.575041
0.872167 -0.571042 0.181408 0.332838 -0.741272 -0.582868
0.618135 -0.682216 -0.0173892 0.153603 0.898209 0.411858
0.631977 -0.679683 -0.00669412 -0.13458 -0.913307 -0.384393
0.609833 -0.676321 -0.00744605 0.182576 0.902538 0.389989
0.185863 -1.02276 -0.398805 0.573416 0.166033 0.802264
0.716941 -0.640981 0.108784 0.0508095 0.898075 0.436897
0.72536 -0.646738 0.0988502 0.0278664 0.907284 0.419594
0.731318 -0.637594 0.118417 -0.00201298 0.883578 0.468279
0.172313 -1.02536 -0.409837 -0.602883 -0.142102 -0.785073
0.90573 -0.614339 0.0876688 -0.408412 0.811459 0.418012
0.917045 -0.61621 0.0710371 -0.468593 0.798666 0.377563
0.925248 -0.60304 0.0890668 0.477798 -0.770916 -0.421187
-0.0889542 -0.686051 0.104062 0.324497 -0.279168 -0.903751
-0.0935926 -0.694947 0.102919 0.284334 -0.251458 -0.925161
-0.088115 -0.673508 0.107895 0.30554 -0.326141 -0.894582
-0.186395 -0.662649 0.147907 -0.396233 0.815892 0.421093
-0.208423 -0.676646 0.142163 -0.550954 0.69622 0.460139
-0.206085 -0.675449 0.147254 -0.524882 0.812212 0.254579
0.185458 -0.173555 0.0889146 0.000316321 0.950807 0.309784
0.199243 -0.170579 0.0994861 0.00307609 0.942928 0.332983
0.176184 -0.169665 0.101064 -0.0423478 0.95898 0.280291
-0.0231325 -0.146789 0.258037 -0.0278217 0.957081 0.288481
-0.0372502 -0.149932 0.248515 -0.00921704 0.955699 0.294201
0.0101307 -0.150503 0.242025 -0.0551971 0.954723 0.292331
0.0248598 -0.146653 0.250491 -0.0541272 0.950285 0.306642
0.0150319 -0.143314 0.263674 -0.0562226 0.948725 0.311062
-0.0645271 -0.155499 0.22767 0.0153332 0.964701 0.262901
0.000907246 -0.14703 0.254326 -0.0567463 0.95127 0.303094
0.0974803 -0.125655 0.294273 0.179243 -0.907382 -0.380171
0.0881461 -0.121607 0.306383 0.14669 -0.904302 -0.4009
1.08078 -0.291275 -0.0603405 0.746436 -0.477902 0.46308
1.07628 -0.306103 -0.0511265 0.76856 -0.487659 0.414132
1.07257 -0.294928 -0.0696065 0.779806 -0.446381 0.438915
0.965735 -0.249242 -0.277847 0.751027 0.240902 0.614755
-0.129115 -0.144357 0.256412 0.098889 0.959398 0.264154
-0.138338 -0.14033 0.268618 0.113096 0.946634 0.301818
-0.0325397 -0.123737 0.326249 -0.0225681 0.921905 0.386758
-0.0232593 -0.128113 0.314245 -0.0403214 0.929183 0.367413
-0.0179074 -0.119413 0.334556 -0.0469794 0.909826 0.412322
0.41791 -0.332369 0.0401492 0.823659 0.200409 0.530492
0.42402 -0.352688 0.044057 0.843157 0.0897924 0.530117
0.425484 -0.336634 0.0504115 0.80508 0.184265 0.56382
0.075143 -1.04243 -0.506146 0.732673 -0.375441 0.567656
0.073904 -1.06076 -0.497731 0.728492 -0.306636 0.612596
0.0828067 -1.0573 -0.488943 0.713315 -0.310887 0.628118
0.298594 -0.0886911 0.213654 -0.298167 0.691182 0.658304
0.306485 -0.057105 0.255236 -0.404555 0.749245 0.524373
0.32596 -0.0450329 0.25524 -0.402794 0.724188 0.55974
0.316835 -0.0782993 0.215753 0.253219 -0.63759 -0.727571
0.23303 -0.773661 0.192782 0.489489 -0.473436 -0.732297
0.253789 -0.757272 0.190471 0.480978 -0.388173 -0.786118
0.243873 -0.752247 0.197777 0.425935 -0.243351 -0.871412
0.834913 -0.648342 0.0708813 -0.226261 0.897327 0.378959
0.93414 -0.153597 -0.209904 0.866559 0.299382 0.399306
0.930125 -0.158418 -0.22151 0.840503 0.36938 0.396374
0.893935 -0.0898638 -0.406921 0.729075 -0.467535 0.499861
0.884759 -0.093142 -0.415702 0.700644 -0.482617 0.525527
0.888395 -0.0784057 -0.424316 0.709814 -0.437298 0.552208
0.0125443 -0.00762563 -0.363316 0.358258 0.489609 -0.794943
0.0250322 -0.0100571 -0.367065 0.363281 0.485923 -0.794925
0.0122496 -0.0236769 -0.354285 0.353428 0.458499 -0.815394
0.896872 -0.0749628 -0.415209 0.720791 -0.442343 0.53366
0.229203 0.597451 -0.625527 0.0465885 -0.994849 -0.0900323
0.243874 0.598191 -0.608848 -0.11805 -0.989175 0.0871596
0.230076 0.599959 -0.602578 -0.0893609 -0.995996 0.00259163
0.0487286 -0.127344 0.302812 0.0802705 -0.920877 -0.3815
0.00516859 -0.139726 0.276779 -0.0591812 0.943028 0.327408
0.194923 -1.21287 -0.469016 0.023246 -0.532333 -0.846216
0.188696 -1.2023 -0.464239 0.00505774 0.482947 0.875635
-0.00896361 -0.143545 0.26748 -0.0493247 0.947013 0.317386
0.947972 -0.27859 -0.303079 0.729063 -0.0349299 0.683555
0.941061 -0.298692 -0.306656 0.709891 -0.13364 0.691516
0.549708 -0.578947 0.170007 -0.380754 -0.661655 -0.64594
0.779684 -0.637849 0.112705 0.0983753 -0.884434 -0.456178
0.795819 -0.631381 0.119099 0.143312 -0.873486 -0.465279
0.786307 -0.627287 0.131036 -0.124258 0.858418 0.497674
0.288091 -0.067178 0.253 0.350638 -0.786043 -0.509107
0.334641 -0.0691355 0.219046 0.130813 -0.639092 -0.757925
0.350767 -0.0626755 0.225483 -0.0510617 0.597119 0.800526
0.270363 -0.0764595 0.249833 -0.369865 0.773629 0.514489
0.739123 -0.683653 -0.00124444 -0.032717 0.962257 0.27017
0.729047 -0.680282 0.011788 -0.0132003 0.956573 0.291192
0.544348 -0.264091 0.172334 0.510371 0.0374244 0.859139
0.541663 -0.248501 0.171281 0.512351 0.0382636 0.857923
0.526657 -0.252159 0.162334 0.498646 0.0461027 0.865579
0.352078 -0.82267 -0.211676 0.508925 0.155281 0.84669
0.348886 -0.815369 -0.212411 -0.541806 -0.0788116 -0.8368
0.337959 -0.826192 -0.221159 0.560992 0.143574 0.815275
0.21436 -0.974945 -0.362894 0.673071 0.183565 0.716435
0.218215 -0.988674 -0.363596 -0.643699 -0.21545 -0.734325
0.227102 -0.974168 -0.350337 0.645928 0.215567 0.73233
0.647764 -0.482277 0.274598 0.435313 -0.251855 0.864333
0.648727 -0.465945 0.266035 0.433094 -0.429309 0.792542
0.635088 -0.484137 0.26802 -0.459685 0.283729 -0.841539
-0.138715 -0.00356462 0.500756 0.214541 0.66207 0.718078
-0.131721 -0.0120276 0.493582 0.19554 0.677266 0.709278
-0.321393 -0.048027 0.318272 0.54436 0.744492 0.386527
-0.309654 -0.0486085 0.331954 0.502384 0.735261 0.454975
-0.328359 -0.0398759 0.32579 0.542175 0.733501 0.409905
0.231194 -0.987764 -0.35135 0.60717 0.285804 0.741391
0.240151 -0.972529 -0.338678 0.612021 0.241242 0.753148
0.185557 -0.190979 0.0311877 -0.271854 -0.895418 -0.352594
0.176859 -0.18573 0.0421722 0.172782 0.93256 0.316984
0.930542 -0.0285379 -0.391749 -0.823748 0.229069 -0.51862
0.931404 -0.0451433 -0.385646 -0.829131 0.220036 -0.513932
0.92428 -0.0491455 -0.395507 0.800344 -0.240785 0.549065
0.244518 -0.985317 -0.34056 0.568488 0.312153 0.761172
0.257773 -0.983555 -0.329152 0.543038 0.342466 0.766698
0.253325 -0.970163 -0.327694 -0.58568 -0.286209 -0.758329
0.932641 -0.0131633 -0.399438 0.801627 -0.384477 0.457789
0.923277 -0.0325036 -0.401555 0.798691 -0.203104 0.566428
-0.0734725 -0.113094 0.351147 0.0015303 0.920457 0.390842
-0.0827418 -0.108612 0.363133 0.0156233 0.910511 0.413189
-0.0686759 -0.105181 0.372473 0.0089695 0.906393 0.422341
-0.0593775 -0.109414 0.360415 -0.00240461 0.91826 0.395971
-0.0453287 -0.105931 0.369746 -0.0470177 0.906477 0.419629
-0.054103 -0.100873 0.380797 -0.0279432 0.888405 0.458209
0.979464 -0.393118 -0.212845 0.724866 -0.502565 0.471167
0.97097 -0.396616 -0.221948 0.712699 -0.499283 0.492724
0.974706 -0.3816 -0.2308 0.70366 -0.452648 0.547697
0.563307 0.962586 -0.195013 -0.00856948 0.906923 0.42121
0.542155 0.955719 -0.206666 -0.1489 0.945715 0.288881
0.90984 -0.222334 -0.314859 -0.503468 -0.47985 -0.718515
0.918106 -0.218917 -0.305539 -0.544832 -0.49605 -0.676086
0.92512 -0.244551 -0.31684 0.584745 0.353747 0.730026
0.502669 -0.283114 -0.370898 -0.22971 -0.681151 0.695173
0.516178 -0.28477 -0.373097 0.257379 0.60464 -0.753769
0.503648 -0.298332 -0.359787 0.418219 0.487175 -0.76665
0.986794 -0.363012 -0.230408 0.739388 -0.40144 0.54051
0.983342 -0.378194 -0.221745 0.731194 -0.459744 0.503975
0.977281 -0.366171 -0.238959 0.69991 -0.424059 0.574718
0.911979 -0.118328 -0.341942 0.758232 -0.583233 0.291417
0.904796 -0.122338 -0.35174 0.74203 -0.574241 0.345889
0.885506 -0.523478 -0.175269 0.587795 -0.476777 0.653591
0.883792 -0.539073 -0.167317 0.541019 -0.473423 0.695104
0.874262 -0.525794 -0.182553 0.543882 -0.55293 0.631237
0.879886 -0.554055 -0.157819 0.441591 -0.449325 0.776598
0.868227 -0.556363 -0.165791 0.474206 -0.512395 0.715947
0.872154 -0.541674 -0.174732 0.518558 -0.498463 0.694717
0.850486 0.228201 -0.487738 0.813817 0.0994172 0.572555
0.843477 0.224235 -0.497716 -0.812525 -0.116545 -0.571157
-0.07916 -0.141192 0.275682 0.0155112 0.947513 0.319341
-0.0884144 -0.136868 0.287788 0.0268554 0.944858 0.326377
-0.102005 -0.139601 0.277378 0.023946 0.945549 0.324597
0.847595 0.245549 -0.492652 0.800591 0.0682499 0.595312
-0.0508933 -0.152893 0.238152 -0.0120279 0.958603 0.284493
-0.0932759 -0.144195 0.266184 0.0184792 0.948907 0.315014
0.906341 0.0185994 -0.45994 -0.71842 0.337646 -0.608168
0.896926 0.0155308 -0.468616 -0.70747 0.360556 -0.607854
0.931376 -0.425002 -0.248477 0.696913 -0.505268 0.508937
0.922864 -0.42848 -0.257543 0.667871 -0.497514 0.553559
-0.113497 -0.156942 0.206201 -0.117103 -0.976379 -0.181578
0.939593 -0.282121 -0.312203 0.705416 -0.0499731 0.70703
0.958736 -0.582857 0.0776988 0.677033 -0.670253 -0.303953
0.9394 -0.592003 0.0921074 -0.554487 0.727807 0.403536
0.938103 -0.599107 0.0807825 -0.57288 0.733068 0.366633
0.0114179 -0.110507 0.351121 0.0705248 -0.899559 -0.431067
-0.549571 0.332527 0.350586 0.849527 0.12299 0.513008
-0.543651 0.313657 0.353883 0.83656 0.216009 0.503496
-0.53818 0.317971 0.364772 0.814794 0.175239 0.552632
0.379172 0.918601 -0.209508 0.0330465 0.93675 0.348436
0.397247 0.921865 -0.197223 0.023091 0.93645 0.35004
0.389004 0.914556 -0.217893 0.0262084 0.94363 0.329963
0.368054 -0.0544927 0.229995 -0.105719 0.534865 0.838298
0.385944 -0.0452148 0.233363 -0.116582 0.554188 0.824187
0.344297 -0.0346245 0.257363 -0.32779 0.708236 0.625264
0.937811 -0.604797 0.0689128 0.581336 -0.733466 -0.352245
0.928477 -0.616595 0.0572259 -0.505899 0.784757 0.358081
0.939572 -0.609231 0.0570883 0.595715 -0.731018 -0.332769
0.304003 -0.510858 0.026322 0.396828 -0.861331 -0.317232
0.304185 -0.51528 0.0133821 0.405838 -0.815717 -0.41219
0.281114 -0.520956 0.0231678 -0.3936 0.835923 0.382507
1.03496 -0.455611 0.0394604 0.834173 -0.397386 0.382412
1.03107 -0.470617 0.048304 0.840759 -0.449821 0.301306
1.02428 -0.474824 0.0383044 -0.838299 0.418341 -0.349637
0.0790597 -0.0784331 0.398524 0.165126 -0.824185 -0.541712
-0.17261 -0.137671 0.255567 0.206874 0.939272 0.273809
0.0638234 -0.0843979 0.391501 -0.130992 0.834046 0.535918
0.0479288 -0.0905122 0.385172 0.092777 -0.860819 -0.500384
0.00260515 -0.105825 0.362305 0.0712269 -0.896241 -0.437811
0.0178224 -0.100464 0.369524 0.0941016 -0.875552 -0.473872
0.0331236 -0.0950497 0.376776 0.0815217 -0.878006 -0.471656
0.85342 0.172416 -0.517347 0.73119 0.265476 0.628398
0.846388 0.168469 -0.527349 0.694545 0.192979 0.693085
-0.132455 -0.149641 0.231683 -0.114873 -0.974542 -0.19254
-0.154717 -0.146765 0.232272 0.171388 0.967626 0.185274
-0.265729 -0.739527 0.123156 -0.625343 0.688883 0.366587
-0.258671 -0.736898 0.144963 -0.788628 0.280009 -0.547413
-0.254141 -0.720601 0.134701 -0.76938 0.637287 -0.0438059
-0.119434 -0.148374 0.243332 0.0902668 0.967618 0.235726
-0.106835 -0.146788 0.255743 0.0536999 0.95778 0.282443
-0.116082 -0.142939 0.26799 0.0644885 0.949897 0.305839
0.227202 -1.01482 -0.367058 0.534644 0.358092 0.765458
0.231918 -1.02743 -0.369353 0.488496 0.393006 0.77905
0.240434 -1.01302 -0.355717 0.514286 0.399928 0.758661
0.245607 -1.02468 -0.359103 0.458978 0.4429 0.770181
0.534771 -0.698759 -0.0803775 -0.425174 -0.51969 -0.741046
0.548651 -0.695881 -0.069852 -0.367563 -0.605784 -0.705637
0.542607 -0.685891 -0.0644186 -0.427457 -0.651094 -0.627182
0.252865 -0.0861152 0.246938 -0.415117 0.754112 0.508913
0.174729 -0.893197 -0.498143 0.773283 -0.620897 0.128527
0.163933 -0.907733 -0.492535 -0.791841 0.582943 -0.182113
0.169442 -0.903163 -0.481763 -0.804993 0.567718 -0.172285
0.688273 0.56929 -0.154793 0.854078 0.494768 0.160483
0.683048 0.588137 -0.158085 -0.985197 -0.135424 -0.105108
0.686303 0.577053 -0.137453 -0.940036 -0.339209 -0.0356406
0.193511 -0.80068 0.197493 -0.460864 0.574428 0.676489
0.202102 -0.788926 0.201897 -0.503849 0.460783 0.730627
0.184925 -0.795395 0.208515 -0.449888 0.489997 0.746662
0.233065 -0.0992727 0.248172 0.449774 -0.778642 -0.437516
0.980669 -0.335173 -0.253881 0.774518 -0.243784 0.583688
0.979703 -0.350989 -0.246887 0.730091 -0.355097 0.583843
0.970863 -0.354258 -0.255682 0.700616 -0.399375 0.591301
0.384811 -0.971098 -0.269723 -0.00697491 0.630657 0.77603
0.529329 -0.268644 0.163717 -0.513791 -0.0806413 -0.854117
0.511865 -0.256715 0.153384 0.523128 0.082045 0.848296
0.828051 -0.65773 0.0520718 0.194475 -0.913905 -0.356311
-0.316384 -0.0398469 0.338629 0.50636 0.72294 0.470061
-0.167275 -0.0115146 0.483171 -0.275412 -0.663996 -0.695167
-0.160647 -0.0204336 0.476602 -0.260403 -0.687204 -0.678189
-0.152826 -0.00735071 0.491712 0.228469 0.659163 0.716454
0.241988 -0.778539 0.181992 -0.505802 0.575434 0.642681
0.213932 -0.786854 0.195027 0.500272 -0.550831 -0.668067
0.986417 -0.226808 -0.226183 0.750325 0.513553 0.416264
0.980146 -0.234094 -0.246207 0.783732 0.409522 0.466965
0.97564 -0.221762 -0.239526 0.709053 0.566468 0.41995
0.974725 -0.407836 -0.203467 0.723738 -0.52798 0.444342
0.969842 -0.422467 -0.193987 0.704519 -0.570763 0.421761
0.966221 -0.411319 -0.21257 0.699789 -0.543459 0.463624
0.979758 -0.318696 -0.259964 0.792424 -0.168849 0.586135
0.98722 -0.314729 -0.250301 0.805834 -0.143603 0.574465
0.260804 -0.531716 0.021422 0.419751 -0.763612 -0.490618
0.259117 -0.526374 0.0334378 0.375081 -0.84328 -0.384958
8.78147e-05 -0.00513496 -0.359498 0.412048 0.478867 -0.775179
0.394709 -0.443067 -0.0730193 -0.966254 -0.248831 0.0666037
0.387988 -0.422531 -0.0678057 -0.961105 -0.254728 -0.106733
0.389741 -0.429242 -0.0841818 -0.928845 -0.370281 0.0117389
0.0120996 0.00802721 -0.37332 0.365804 0.525203 -0.768342
0.0252042 0.00576968 -0.376383 0.352661 0.536111 -0.766951
